1526

10.0    8.338   22.694   78.480
9.0    8.338   24.070   78.966
10.0    8.338   24.070   80.425
10.0   10.720   17.193   76.535
10.0   10.720   19.944   72.644
9.0   10.720   19.944   74.103
10.0   10.720   18.568   74.590
9.0   10.720   17.193   75.076
10.0   11.912   16.505   74.590
10.0    9.529   16.505   74.590
9.0   10.720   17.193   77.994
10.0   11.912   16.505   78.480
10.0    9.529   16.505   78.480
10.0   10.720   18.568   78.480
9.0   10.720   19.944   78.966
10.0   10.720   19.944   80.425
10.0   15.485   17.193   76.535
10.0   15.485   19.944   72.644
9.0   15.485   19.944   74.103
10.0   15.485   18.568   74.590
9.0   15.485   17.193   75.076
10.0   16.676   16.505   74.590
10.0   14.294   16.505   74.590
9.0   15.485   17.193   77.994
10.0   16.676   16.505   78.480
10.0   14.294   16.505   78.480
10.0   15.485   18.568   78.480
9.0   15.485   19.944   78.966
10.0   15.485   19.944   80.425
10.0   13.103   21.319   76.535
10.0   13.103   24.070   72.644
9.0   13.103   24.070   74.103
10.0   13.103   22.694   74.590
9.0   13.103   21.319   75.076
10.0   14.294   20.631   74.590
10.0   11.912   20.631   74.590
9.0   13.103   21.319   77.994
10.0   14.294   20.631   78.480
10.0   11.912   20.631   78.480
10.0   13.103   22.694   78.480
9.0   13.103   24.070   78.966
10.0   13.103   24.070   80.425
10.0   17.867   21.319   76.535
10.0   17.867   24.070   72.644
9.0   17.867   24.070   74.103
10.0   17.867   22.694   74.590
9.0   17.867   21.319   75.076
10.0   19.058   20.631   74.590
10.0   16.676   20.631   74.590
9.0   17.867   21.319   77.994
10.0   19.058   20.631   78.480
10.0   16.676   20.631   78.480
10.0   17.867   22.694   78.480
9.0   17.867   24.070   78.966
10.0   17.867   24.070   80.425
10.0   20.250   17.193   76.535
10.0   20.250   19.944   72.644
9.0   20.250   19.944   74.103
10.0   20.250   18.568   74.590
9.0   20.250   17.193   75.076
10.0   21.441   16.505   74.590
10.0   19.058   16.505   74.590
9.0   20.250   17.193   77.994
10.0   21.441   16.505   78.480
10.0   19.058   16.505   78.480
10.0   20.250   18.568   78.480
9.0   20.250   19.944   78.966
10.0   20.250   19.944   80.425
10.0   25.014   17.193   76.535
10.0   25.014   19.944   72.644
9.0   25.014   19.944   74.103
10.0   25.014   18.568   74.590
9.0   25.014   17.193   75.076
10.0   26.205   16.505   74.590
10.0   23.823   16.505   74.590
9.0   25.014   17.193   77.994
10.0   26.205   16.505   78.480
10.0   23.823   16.505   78.480
10.0   25.014   18.568   78.480
9.0   25.014   19.944   78.966
10.0   25.014   19.944   80.425
10.0   22.632   21.319   76.535
10.0   22.632   24.070   72.644
9.0   22.632   24.070   74.103
10.0   22.632   22.694   74.590
9.0   22.632   21.319   75.076
10.0   23.823   20.631   74.590
10.0   21.441   20.631   74.590
9.0   22.632   21.319   77.994
10.0   23.823   20.631   78.480
10.0   21.441   20.631   78.480
10.0   22.632   22.694   78.480
9.0   22.632   24.070   78.966
10.0   22.632   24.070   80.425
10.0   27.396   21.319   76.535
10.0   27.396   24.070   72.644
9.0   27.396   24.070   74.103
10.0   27.396   22.694   74.590
9.0   27.396   21.319   75.076
10.0   28.587   20.631   74.590
10.0   26.205   20.631   74.590
9.0   27.396   21.319   77.994
10.0   28.587   20.631   78.480
10.0   26.205   20.631   78.480
10.0   27.396   22.694   78.480
9.0   27.396   24.070   78.966
10.0   27.396   24.070   80.425
10.0   29.779   17.193   76.535
10.0   29.779   19.944   72.644
9.0   29.779   19.944   74.103
10.0   29.779   18.568   74.590
9.0   29.779   17.193   75.076
10.0   30.970   16.505   74.590
10.0   28.587   16.505   74.590
9.0   29.779   17.193   77.994
10.0   30.970   16.505   78.480
10.0   28.587   16.505   78.480
10.0   29.779   18.568   78.480
9.0   29.779   19.944   78.966
10.0   29.779   19.944   80.425
10.0   34.543   17.193   76.535
10.0   34.543   19.944   72.644
9.0   34.543   19.944   74.103
10.0   34.543   18.568   74.590
9.0   34.543   17.193   75.076
10.0   35.734   16.505   74.590
10.0   33.352   16.505   74.590
9.0   34.543   17.193   77.994
10.0   35.734   16.505   78.480
10.0   33.352   16.505   78.480
10.0   34.543   18.568   78.480
9.0   34.543   19.944   78.966
10.0   34.543   19.944   80.425
10.0   32.161   21.319   76.535
10.0   32.161   24.070   72.644
9.0   32.161   24.070   74.103
10.0   32.161   22.694   74.590
9.0   32.161   21.319   75.076
10.0   33.352   20.631   74.590
10.0   30.970   20.631   74.590
9.0   32.161   21.319   77.994
10.0   33.352   20.631   78.480
10.0   30.970   20.631   78.480
10.0   32.161   22.694   78.480
9.0   32.161   24.070   78.966
10.0   32.161   24.070   80.425
10.0   36.925   21.319   76.535
10.0   36.925   24.070   72.644
9.0   36.925   24.070   74.103
10.0   36.925   22.694   74.590
9.0   36.925   21.319   75.076
10.0   38.117   20.631   74.590
10.0   35.734   20.631   74.590
9.0   36.925   21.319   77.994
10.0   38.117   20.631   78.480
10.0   35.734   20.631   78.480
10.0   36.925   22.694   78.480
9.0   36.925   24.070   78.966
10.0   36.925   24.070   80.425
10.0   39.308   17.193   76.535
10.0   39.308   19.944   72.644
9.0   39.308   19.944   74.103
10.0   39.308   18.568   74.590
9.0   39.308   17.193   75.076
10.0   40.499   16.505   74.590
10.0   38.117   16.505   74.590
9.0   39.308   17.193   77.994
10.0   40.499   16.505   78.480
10.0   38.117   16.505   78.480
10.0   39.308   18.568   78.480
9.0   39.308   19.944   78.966
10.0   39.308   19.944   80.425
10.0   44.072   17.193   76.535
10.0   44.072   19.944   72.644
9.0   44.072   19.944   74.103
10.0   44.072   18.568   74.590
9.0   44.072   17.193   75.076
10.0   45.264   16.505   74.590
10.0   42.881   16.505   74.590
9.0   44.072   17.193   77.994
10.0   45.264   16.505   78.480
10.0   42.881   16.505   78.480
10.0   44.072   18.568   78.480
9.0   44.072   19.944   78.966
10.0   44.072   19.944   80.425
10.0   41.690   21.319   76.535
10.0   41.690   24.070   72.644
9.0   41.690   24.070   74.103
10.0   41.690   22.694   74.590
9.0   41.690   21.319   75.076
10.0   42.881   20.631   74.590
10.0   40.499   20.631   74.590
9.0   41.690   21.319   77.994
10.0   42.881   20.631   78.480
10.0   40.499   20.631   78.480
10.0   41.690   22.694   78.480
9.0   41.690   24.070   78.966
10.0   41.690   24.070   80.425
10.0   46.455   21.319   76.535
10.0   46.455   24.070   72.644
9.0   46.455   24.070   74.103
10.0   46.455   22.694   74.590
9.0   46.455   21.319   75.076
10.0   47.646   20.631   74.590
10.0   45.264   20.631   74.590
9.0   46.455   21.319   77.994
10.0   47.646   20.631   78.480
10.0   45.264   20.631   78.480
10.0   46.455   22.694   78.480
9.0   46.455   24.070   78.966
10.0   46.455   24.070   80.425
10.0    1.191   25.445   76.535
10.0    1.191   28.196   72.644
9.0    1.191   28.196   74.103
10.0    1.191   26.821   74.590
9.0    1.191   25.445   75.076
10.0    2.382   24.758   74.590
10.0    0.000   24.758   74.590
9.0    1.191   25.445   77.994
10.0    2.382   24.758   78.480
10.0    0.000   24.758   78.480
10.0    1.191   26.821   78.480
9.0    1.191   28.196   78.966
10.0    1.191   28.196   80.425
10.0    5.956   25.445   76.535
10.0    5.956   28.196   72.644
9.0    5.956   28.196   74.103
10.0    5.956   26.821   74.590
9.0    5.956   25.445   75.076
10.0    7.147   24.758   74.590
10.0    4.765   24.758   74.590
9.0    5.956   25.445   77.994
10.0    7.147   24.758   78.480
10.0    4.765   24.758   78.480
10.0    5.956   26.821   78.480
9.0    5.956   28.196   78.966
10.0    5.956   28.196   80.425
10.0    3.573   29.572   76.535
10.0    3.573   32.322   72.644
9.0    3.573   32.322   74.103
10.0    3.573   30.947   74.590
9.0    3.573   29.572   75.076
10.0    4.765   28.884   74.590
10.0    2.382   28.884   74.590
9.0    3.573   29.572   77.994
10.0    4.765   28.884   78.480
10.0    2.382   28.884   78.480
10.0    3.573   30.947   78.480
9.0    3.573   32.322   78.966
10.0    3.573   32.322   80.425
10.0    8.338   29.572   76.535
10.0    8.338   32.322   72.644
9.0    8.338   32.322   74.103
10.0    8.338   30.947   74.590
9.0    8.338   29.572   75.076
10.0    9.529   28.884   74.590
10.0    7.147   28.884   74.590
9.0    8.338   29.572   77.994
10.0    9.529   28.884   78.480
10.0    7.147   28.884   78.480
10.0    8.338   30.947   78.480
9.0    8.338   32.322   78.966
10.0    8.338   32.322   80.425
10.0   10.720   25.445   76.535
10.0   10.720   28.196   72.644
9.0   10.720   28.196   74.103
10.0   10.720   26.821   74.590
9.0   10.720   25.445   75.076
10.0   11.912   24.758   74.590
10.0    9.529   24.758   74.590
9.0   10.720   25.445   77.994
10.0   11.912   24.758   78.480
10.0    9.529   24.758   78.480
10.0   10.720   26.821   78.480
9.0   10.720   28.196   78.966
10.0   10.720   28.196   80.425
10.0   15.485   25.445   76.535
10.0   15.485   28.196   72.644
9.0   15.485   28.196   74.103
10.0   15.485   26.821   74.590
9.0   15.485   25.445   75.076
10.0   16.676   24.758   74.590
10.0   14.294   24.758   74.590
9.0   15.485   25.445   77.994
10.0   16.676   24.758   78.480
10.0   14.294   24.758   78.480
10.0   15.485   26.821   78.480
9.0   15.485   28.196   78.966
10.0   15.485   28.196   80.425
10.0   13.103   29.572   76.535
10.0   13.103   32.322   72.644
9.0   13.103   32.322   74.103
10.0   13.103   30.947   74.590
9.0   13.103   29.572   75.076
10.0   14.294   28.884   74.590
10.0   11.912   28.884   74.590
9.0   13.103   29.572   77.994
10.0   14.294   28.884   78.480
10.0   11.912   28.884   78.480
10.0   13.103   30.947   78.480
9.0   13.103   32.322   78.966
10.0   13.103   32.322   80.425
10.0   17.867   29.572   76.535
10.0   17.867   32.322   72.644
9.0   17.867   32.322   74.103
10.0   17.867   30.947   74.590
9.0   17.867   29.572   75.076
10.0   19.058   28.884   74.590
10.0   16.676   28.884   74.590
9.0   17.867   29.572   77.994
10.0   19.058   28.884   78.480
10.0   16.676   28.884   78.480
10.0   17.867   30.947   78.480
9.0   17.867   32.322   78.966
10.0   17.867   32.322   80.425
10.0   20.250   25.445   76.535
10.0   20.250   28.196   72.644
9.0   20.250   28.196   74.103
10.0   20.250   26.821   74.590
9.0   20.250   25.445   75.076
10.0   21.441   24.758   74.590
10.0   19.058   24.758   74.590
9.0   20.250   25.445   77.994
10.0   21.441   24.758   78.480
10.0   19.058   24.758   78.480
10.0   20.250   26.821   78.480
9.0   20.250   28.196   78.966
10.0   20.250   28.196   80.425
10.0   25.014   25.445   76.535
10.0   25.014   28.196   72.644
9.0   25.014   28.196   74.103
10.0   25.014   26.821   74.590
9.0   25.014   25.445   75.076
10.0   26.205   24.758   74.590
10.0   23.823   24.758   74.590
9.0   25.014   25.445   77.994
10.0   26.205   24.758   78.480
10.0   23.823   24.758   78.480
10.0   25.014   26.821   78.480
9.0   25.014   28.196   78.966
10.0   25.014   28.196   80.425
10.0   22.632   29.572   76.535
10.0   22.632   32.322   72.644
9.0   22.632   32.322   74.103
10.0   22.632   30.947   74.590
9.0   22.632   29.572   75.076
10.0   23.823   28.884   74.590
10.0   21.441   28.884   74.590
9.0   22.632   29.572   77.994
10.0   23.823   28.884   78.480
10.0   21.441   28.884   78.480
10.0   22.632   30.947   78.480
9.0   22.632   32.322   78.966
10.0   22.632   32.322   80.425
10.0   27.396   29.572   76.535
10.0   27.396   32.322   72.644
9.0   27.396   32.322   74.103
10.0   27.396   30.947   74.590
9.0   27.396   29.572   75.076
10.0   28.587   28.884   74.590
10.0   26.205   28.884   74.590
9.0   27.396   29.572   77.994
10.0   28.587   28.884   78.480
10.0   26.205   28.884   78.480
10.0   27.396   30.947   78.480
9.0   27.396   32.322   78.966
10.0   27.396   32.322   80.425
10.0   29.779   25.445   76.535
10.0   29.779   28.196   72.644
9.0   29.779   28.196   74.103
10.0   29.779   26.821   74.590
9.0   29.779   25.445   75.076
10.0   30.970   24.758   74.590
10.0   28.587   24.758   74.590
9.0   29.779   25.445   77.994
10.0   30.970   24.758   78.480
10.0   28.587   24.758   78.480
10.0   29.779   26.821   78.480
9.0   29.779   28.196   78.966
10.0   29.779   28.196   80.425
10.0   34.543   25.445   76.535
10.0   34.543   28.196   72.644
9.0   34.543   28.196   74.103
10.0   34.543   26.821   74.590
9.0   34.543   25.445   75.076
10.0   35.734   24.758   74.590
10.0   33.352   24.758   74.590
9.0   34.543   25.445   77.994
10.0   35.734   24.758   78.480
10.0   33.352   24.758   78.480
10.0   34.543   26.821   78.480
9.0   34.543   28.196   78.966
10.0   34.543   28.196   80.425
10.0   32.161   29.572   76.535
10.0   32.161   32.322   72.644
9.0   32.161   32.322   74.103
10.0   32.161   30.947   74.590
9.0   32.161   29.572   75.076
10.0   33.352   28.884   74.590
10.0   30.970   28.884   74.590
9.0   32.161   29.572   77.994
10.0   33.352   28.884   78.480
10.0   30.970   28.884   78.480
10.0   32.161   30.947   78.480
9.0   32.161   32.322   78.966
10.0   32.161   32.322   80.425
10.0   36.925   29.572   76.535
10.0   36.925   32.322   72.644
9.0   36.925   32.322   74.103
10.0   36.925   30.947   74.590
9.0   36.925   29.572   75.076
10.0   38.117   28.884   74.590
10.0   35.734   28.884   74.590
9.0   36.925   29.572   77.994
10.0   38.117   28.884   78.480
10.0   35.734   28.884   78.480
10.0   36.925   30.947   78.480
9.0   36.925   32.322   78.966
10.0   36.925   32.322   80.425
10.0   39.308   25.445   76.535
10.0   39.308   28.196   72.644
9.0   39.308   28.196   74.103
10.0   39.308   26.821   74.590
9.0   39.308   25.445   75.076
10.0   40.499   24.758   74.590
10.0   38.117   24.758   74.590
9.0   39.308   25.445   77.994
10.0   40.499   24.758   78.480
10.0   38.117   24.758   78.480
10.0   39.308   26.821   78.480
9.0   39.308   28.196   78.966
10.0   39.308   28.196   80.425
10.0   44.072   25.445   76.535
10.0   44.072   28.196   72.644
9.0   44.072   28.196   74.103
10.0   44.072   26.821   74.590
9.0   44.072   25.445   75.076
10.0   45.264   24.758   74.590
10.0   42.881   24.758   74.590
9.0   44.072   25.445   77.994
10.0   45.264   24.758   78.480
10.0   42.881   24.758   78.480
10.0   44.072   26.821   78.480
9.0   44.072   28.196   78.966
10.0   44.072   28.196   80.425
10.0   41.690   29.572   76.535
10.0   41.690   32.322   72.644
9.0   41.690   32.322   74.103
10.0   41.690   30.947   74.590
9.0   41.690   29.572   75.076
10.0   42.881   28.884   74.590
10.0   40.499   28.884   74.590
9.0   41.690   29.572   77.994
10.0   42.881   28.884   78.480
10.0   40.499   28.884   78.480
10.0   41.690   30.947   78.480
9.0   41.690   32.322   78.966
10.0   41.690   32.322   80.425
10.0   46.455   29.572   76.535
10.0   46.455   32.322   72.644
9.0   46.455   32.322   74.103
10.0   46.455   30.947   74.590
9.0   46.455   29.572   75.076
10.0   47.646   28.884   74.590
10.0   45.264   28.884   74.590
9.0   46.455   29.572   77.994
10.0   47.646   28.884   78.480
10.0   45.264   28.884   78.480
10.0   46.455   30.947   78.480
9.0   46.455   32.322   78.966
10.0   46.455   32.322   80.425
10.0    1.191   33.698   76.535
10.0    1.191   36.449   72.644
9.0    1.191   36.449   74.103
10.0    1.191   35.073   74.590
9.0    1.191   33.698   75.076
10.0    2.382   33.010   74.590
10.0    0.000   33.010   74.590
9.0    1.191   33.698   77.994
10.0    2.382   33.010   78.480
10.0    0.000   33.010   78.480
10.0    1.191   35.073   78.480
9.0    1.191   36.449   78.966
10.0    1.191   36.449   80.425
10.0    5.956   33.698   76.535
10.0    5.956   36.449   72.644
9.0    5.956   36.449   74.103
10.0    5.956   35.073   74.590
9.0    5.956   33.698   75.076
10.0    7.147   33.010   74.590
10.0    4.765   33.010   74.590
9.0    5.956   33.698   77.994
10.0    7.147   33.010   78.480
10.0    4.765   33.010   78.480
10.0    5.956   35.073   78.480
9.0    5.956   36.449   78.966
10.0    5.956   36.449   80.425
10.0    3.573   37.824   76.535
10.0    3.573   40.575   72.644
9.0    3.573   40.575   74.103
10.0    3.573   39.199   74.590
9.0    3.573   37.824   75.076
10.0    4.765   37.136   74.590
10.0    2.382   37.136   74.590
9.0    3.573   37.824   77.994
10.0    4.765   37.136   78.480
10.0    2.382   37.136   78.480
10.0    3.573   39.199   78.480
9.0    3.573   40.575   78.966
10.0    3.573   40.575   80.425
10.0    8.338   37.824   76.535
10.0    8.338   40.575   72.644
9.0    8.338   40.575   74.103
10.0    8.338   39.199   74.590
9.0    8.338   37.824   75.076
10.0    9.529   37.136   74.590
10.0    7.147   37.136   74.590
9.0    8.338   37.824   77.994
10.0    9.529   37.136   78.480
10.0    7.147   37.136   78.480
10.0    8.338   39.199   78.480
9.0    8.338   40.575   78.966
10.0    8.338   40.575   80.425
10.0   10.720   33.698   76.535
10.0   10.720   36.449   72.644
9.0   10.720   36.449   74.103
10.0   10.720   35.073   74.590
9.0   10.720   33.698   75.076
10.0   11.912   33.010   74.590
10.0    9.529   33.010   74.590
9.0   10.720   33.698   77.994
10.0   11.912   33.010   78.480
10.0    9.529   33.010   78.480
10.0   10.720   35.073   78.480
9.0   10.720   36.449   78.966
10.0   10.720   36.449   80.425
10.0   15.485   33.698   76.535
10.0   15.485   36.449   72.644
9.0   15.485   36.449   74.103
10.0   15.485   35.073   74.590
9.0   15.485   33.698   75.076
10.0   16.676   33.010   74.590
10.0   14.294   33.010   74.590
9.0   15.485   33.698   77.994
10.0   16.676   33.010   78.480
10.0   14.294   33.010   78.480
10.0   15.485   35.073   78.480
9.0   15.485   36.449   78.966
10.0   15.485   36.449   80.425
10.0   13.103   37.824   76.535
10.0   13.103   40.575   72.644
9.0   13.103   40.575   74.103
10.0   13.103   39.199   74.590
9.0   13.103   37.824   75.076
10.0   14.294   37.136   74.590
10.0   11.912   37.136   74.590
9.0   13.103   37.824   77.994
10.0   14.294   37.136   78.480
10.0   11.912   37.136   78.480
10.0   13.103   39.199   78.480
9.0   13.103   40.575   78.966
10.0   13.103   40.575   80.425
10.0   17.867   37.824   76.535
10.0   17.867   40.575   72.644
9.0   17.867   40.575   74.103
10.0   17.867   39.199   74.590
9.0   17.867   37.824   75.076
10.0   19.058   37.136   74.590
10.0   16.676   37.136   74.590
9.0   17.867   37.824   77.994
10.0   19.058   37.136   78.480
10.0   16.676   37.136   78.480
10.0   17.867   39.199   78.480
9.0   17.867   40.575   78.966
10.0   17.867   40.575   80.425
10.0   20.250   33.698   76.535
10.0   20.250   36.449   72.644
9.0   20.250   36.449   74.103
10.0   20.250   35.073   74.590
9.0   20.250   33.698   75.076
10.0   21.441   33.010   74.590
10.0   19.058   33.010   74.590
9.0   20.250   33.698   77.994
10.0   21.441   33.010   78.480
10.0   19.058   33.010   78.480
10.0   20.250   35.073   78.480
9.0   20.250   36.449   78.966
10.0   20.250   36.449   80.425
10.0   25.014   33.698   76.535
10.0   25.014   36.449   72.644
9.0   25.014   36.449   74.103
10.0   25.014   35.073   74.590
9.0   25.014   33.698   75.076
10.0   26.205   33.010   74.590
10.0   23.823   33.010   74.590
9.0   25.014   33.698   77.994
10.0   26.205   33.010   78.480
10.0   23.823   33.010   78.480
10.0   25.014   35.073   78.480
9.0   25.014   36.449   78.966
10.0   25.014   36.449   80.425
10.0   22.632   37.824   76.535
10.0   22.632   40.575   72.644
9.0   22.632   40.575   74.103
10.0   22.632   39.199   74.590
9.0   22.632   37.824   75.076
10.0   23.823   37.136   74.590
10.0   21.441   37.136   74.590
9.0   22.632   37.824   77.994
10.0   23.823   37.136   78.480
10.0   21.441   37.136   78.480
10.0   22.632   39.199   78.480
9.0   22.632   40.575   78.966
10.0   22.632   40.575   80.425
10.0   27.396   37.824   76.535
10.0   27.396   40.575   72.644
9.0   27.396   40.575   74.103
10.0   27.396   39.199   74.590
9.0   27.396   37.824   75.076
10.0   28.587   37.136   74.590
10.0   26.205   37.136   74.590
9.0   27.396   37.824   77.994
10.0   28.587   37.136   78.480
10.0   26.205   37.136   78.480
10.0   27.396   39.199   78.480
9.0   27.396   40.575   78.966
10.0   27.396   40.575   80.425
10.0   29.779   33.698   76.535
10.0   29.779   36.449   72.644
9.0   29.779   36.449   74.103
10.0   29.779   35.073   74.590
9.0   29.779   33.698   75.076
10.0   30.970   33.010   74.590
10.0   28.587   33.010   74.590
9.0   29.779   33.698   77.994
10.0   30.970   33.010   78.480
10.0   28.587   33.010   78.480
10.0   29.779   35.073   78.480
9.0   29.779   36.449   78.966
10.0   29.779   36.449   80.425
10.0   34.543   33.698   76.535
10.0   34.543   36.449   72.644
9.0   34.543   36.449   74.103
10.0   34.543   35.073   74.590
9.0   34.543   33.698   75.076
10.0   35.734   33.010   74.590
10.0   33.352   33.010   74.590
9.0   34.543   33.698   77.994
10.0   35.734   33.010   78.480
10.0   33.352   33.010   78.480
10.0   34.543   35.073   78.480
9.0   34.543   36.449   78.966
10.0   34.543   36.449   80.425
10.0   32.161   37.824   76.535
10.0   32.161   40.575   72.644
9.0   32.161   40.575   74.103
10.0   32.161   39.199   74.590
9.0   32.161   37.824   75.076
10.0   33.352   37.136   74.590
10.0   30.970   37.136   74.590
9.0   32.161   37.824   77.994
10.0   33.352   37.136   78.480
10.0   30.970   37.136   78.480
10.0   32.161   39.199   78.480
9.0   32.161   40.575   78.966
10.0   32.161   40.575   80.425
10.0   36.925   37.824   76.535
10.0   36.925   40.575   72.644
9.0   36.925   40.575   74.103
10.0   36.925   39.199   74.590
9.0   36.925   37.824   75.076
10.0   38.117   37.136   74.590
10.0   35.734   37.136   74.590
9.0   36.925   37.824   77.994
10.0   38.117   37.136   78.480
10.0   35.734   37.136   78.480
10.0   36.925   39.199   78.480
9.0   36.925   40.575   78.966
10.0   36.925   40.575   80.425
10.0   39.308   33.698   76.535
10.0   39.308   36.449   72.644
9.0   39.308   36.449   74.103
10.0   39.308   35.073   74.590
9.0   39.308   33.698   75.076
10.0   40.499   33.010   74.590
10.0   38.117   33.010   74.590
9.0   39.308   33.698   77.994
10.0   40.499   33.010   78.480
10.0   38.117   33.010   78.480
10.0   39.308   35.073   78.480
9.0   39.308   36.449   78.966
10.0   39.308   36.449   80.425
10.0   44.072   33.698   76.535
10.0   44.072   36.449   72.644
9.0   44.072   36.449   74.103
10.0   44.072   35.073   74.590
9.0   44.072   33.698   75.076
10.0   45.264   33.010   74.590
10.0   42.881   33.010   74.590
9.0   44.072   33.698   77.994
10.0   45.264   33.010   78.480
10.0   42.881   33.010   78.480
10.0   44.072   35.073   78.480
9.0   44.072   36.449   78.966
10.0   44.072   36.449   80.425
10.0   41.690   37.824   76.535
10.0   41.690   40.575   72.644
9.0   41.690   40.575   74.103
10.0   41.690   39.199   74.590
9.0   41.690   37.824   75.076
10.0   42.881   37.136   74.590
10.0   40.499   37.136   74.590
9.0   41.690   37.824   77.994
10.0   42.881   37.136   78.480
10.0   40.499   37.136   78.480
10.0   41.690   39.199   78.480
9.0   41.690   40.575   78.966
10.0   41.690   40.575   80.425
10.0   46.455   37.824   76.535
10.0   46.455   40.575   72.644
9.0   46.455   40.575   74.103
10.0   46.455   39.199   74.590
9.0   46.455   37.824   75.076
10.0   47.646   37.136   74.590
10.0   45.264   37.136   74.590
9.0   46.455   37.824   77.994
10.0   47.646   37.136   78.480
10.0   45.264   37.136   78.480
10.0   46.455   39.199   78.480
9.0   46.455   40.575   78.966
10.0   46.455   40.575   80.425
11.0   32.161   33.159   81.620
11.0   10.720   20.781   81.620
11.0   20.250   29.033   81.620
11.0   36.925    0.112   81.620
11.0   10.720   29.033   81.620
11.0   34.543   37.286   81.620
11.0   36.925   33.159   81.620
11.0   41.690   33.159   81.620
11.0   17.867   24.907   81.620
11.0   39.308   12.528   81.620
11.0   13.103    8.402   81.620
11.0   27.396   16.654   81.620
11.0   15.485   20.781   81.620
11.0    3.573    0.112   81.620
11.0   25.014   12.528   81.620
11.0    8.338    0.112   81.620
11.0   25.014    4.276   81.620
11.0    1.191   20.781   81.620
11.0   39.308    4.276   81.620
11.0   39.308   20.781   81.620
11.0   44.072   12.528   81.620
11.0   41.690    0.112   81.620
11.0   27.396    0.112   81.620
11.0   29.779   20.781   81.620
11.0    8.338   33.159   81.620
11.0   32.161   16.654   81.620
11.0   34.543   29.033   81.620
11.0   36.925   16.654   81.620
11.0   46.455    8.402   81.620
11.0   46.455    0.112   81.620
11.0    8.338   24.907   81.620
11.0   27.396   24.907   81.620
11.0   15.485   37.286   81.620
11.0   13.103   24.907   81.620
11.0   46.455   16.654   81.620
11.0   20.250    4.276   81.620
11.0   20.250   20.781   81.620
11.0   29.779    4.276   81.620
11.0   17.867   16.654   81.620
11.0   32.161    8.402   81.620
11.0   10.720   37.286   81.620
11.0    8.338    8.402   81.620
11.0   41.690    8.402   81.620
11.0   27.396   33.159   81.620
11.0   25.014   20.781   81.620
11.0   44.072    4.276   81.620
11.0   36.925    8.402   81.620
11.0   41.690   16.654   81.620
11.0   44.072   20.781   81.620
11.0   22.632    0.112   81.620
11.0   13.103    0.112   81.620
11.0   34.543   12.528   81.620
11.0   29.779   29.033   81.620
11.0   17.867    0.112   81.620
11.0   41.690   24.907   81.620
11.0   25.014   37.286   81.620
11.0    3.573   16.654   81.620
11.0   32.161   24.907   81.620
11.0   13.103   33.159   81.620
11.0   34.543   20.781   81.620
11.0   32.161    0.112   81.620
11.0   15.485   29.033   81.620
11.0    1.191   29.033   81.620
11.0   39.308   37.286   81.620
11.0    3.573    8.402   81.620
11.0    3.573   33.159   81.620
11.0   46.455   24.907   81.620
11.0   17.867   33.159   81.620
11.0   25.014   29.033   81.620
11.0   22.632   16.654   81.620
11.0    1.191    4.276   81.620
11.0   13.103   16.654   81.620
11.0   44.072   29.033   81.620
11.0   15.485   12.528   81.620
11.0   29.779   37.286   81.620
11.0    5.956   12.528   81.620
11.0   10.720   12.528   81.620
11.0    5.956   29.033   81.620
11.0   22.632    8.402   81.620
11.0   27.396    8.402   81.620
11.0   20.250   12.528   81.620
11.0    1.191   12.528   81.620
11.0   34.543    4.276   81.620
11.0    5.956   37.286   81.620
11.0   20.250   37.286   81.620
11.0    1.191   37.286   81.620
11.0   46.455   33.159   81.620
11.0   17.867    8.402   81.620
11.0   15.485    4.276   81.620
11.0   39.308   29.033   81.620
11.0   10.720    4.276   81.620
11.0   44.072   37.286   81.620
11.0    8.338   16.654   81.620
11.0   22.632   24.907   81.620
11.0   22.632   33.159   81.620
11.0    3.573   24.907   81.620
11.0    5.956    4.276   81.620
11.0   29.779   12.528   81.620
11.0    5.956   20.781   81.620
11.0   36.925   24.907   81.620
11.0   46.498   37.024   59.779
11.0   41.733   37.024   59.779
11.0   44.116   32.898   59.779
11.0   39.351   32.898   59.779
11.0   36.969   37.024   59.779
8.0   32.598   37.121   60.017
6.0   32.657   38.267   60.239
7.0   32.673   39.318   60.346
6.0   32.864   36.233   60.744
7.0   33.044   35.302   61.237
5.0   32.224   37.069   58.910
3.0   31.762   37.836   57.589
2.0   31.344   36.449   59.137
2.0   33.004   36.392   58.532
4.0   31.482   36.992   56.389
2.0   32.546   38.542   57.303
2.0   30.858   38.407   57.816
3.0   30.727   37.622   55.265
3.0   30.863   36.904   53.862
2.0   29.672   37.659   55.549
2.0   31.084   38.649   55.147
4.0   29.678   37.074   52.981
2.0   31.740   37.304   53.345
2.0   31.010   35.831   54.006
3.0   29.864   37.298   51.524
3.0   28.808   36.545   50.636
2.0   29.776   38.373   51.341
2.0   30.866   36.977   51.227
4.0   28.737   37.048   49.250
2.0   29.072   35.484   50.593
2.0   27.813   36.642   51.077
3.0   27.847   36.292   48.352
3.0   27.649   36.947   46.949
2.0   28.259   35.289   48.212
2.0   26.869   36.205   48.832
4.0   26.428   36.416   46.345
2.0   27.518   38.028   47.052
2.0   28.505   36.751   46.297
3.0   26.505   35.701   45.075
3.0   26.143   36.613   43.881
2.0   27.494   35.257   44.935
2.0   25.765   34.896   45.109
4.0   25.623   36.050   42.742
2.0   25.424   37.321   44.236
2.0   27.087   37.004   43.564
3.0   25.108   36.418   41.322
3.0   24.546   35.707   40.124
2.0   24.337   37.127   41.542
2.0   26.092   36.480   40.908
4.0   24.031   35.721   38.818
2.0   25.343   35.011   39.969
2.0   23.563   35.924   40.487
3.0   23.588   36.095   37.578
1.0   23.056   35.823   36.318
2.0   22.856   36.808   37.894
2.0   24.552   35.837   37.191
2.0   22.000   35.990   36.333
2.0   23.509   36.466   35.593
2.0   23.252   34.802   36.061
11.0   34.586   32.898   59.779
11.0   29.822   32.898   59.779
11.0   27.439   37.024   59.779
11.0   22.675   37.024   59.779
11.0   25.057   32.898   59.779
11.0   20.293   32.898   59.779
11.0   17.910   37.024   59.779
11.0   13.146   37.024   59.779
11.0   15.528   32.898   59.779
11.0   10.764   32.898   59.779
11.0    8.381   37.024   59.779
11.0    3.617   37.024   59.779
8.0    6.393   32.995   60.017
6.0    6.452   34.141   60.239
7.0    6.468   35.192   60.346
6.0    6.658   32.107   60.744
7.0    6.840   31.176   61.237
5.0    6.020   32.943   58.910
3.0    5.557   33.710   57.589
2.0    5.139   32.323   59.137
2.0    6.799   32.266   58.532
4.0    5.277   32.866   56.389
2.0    6.341   34.416   57.303
2.0    4.653   34.281   57.816
3.0    4.522   33.496   55.265
3.0    4.658   32.778   53.862
2.0    3.467   33.533   55.549
2.0    4.879   34.523   55.147
4.0    3.473   32.948   52.981
2.0    5.535   33.178   53.345
2.0    4.805   31.705   54.006
3.0    3.659   33.172   51.524
3.0    2.603   32.419   50.636
2.0    3.571   34.247   51.341
2.0    4.660   32.851   51.227
4.0    2.532   32.922   49.250
2.0    2.867   31.358   50.593
2.0    1.608   32.516   51.077
3.0    1.642   32.166   48.352
3.0    1.444   32.821   46.949
2.0    2.054   31.163   48.212
2.0    0.664   32.079   48.832
4.0    0.223   32.290   46.345
2.0    1.313   33.902   47.052
2.0    2.300   32.625   46.297
3.0    0.300   31.575   45.075
3.0   47.627   32.487   43.881
2.0    1.289   31.131   44.935
2.0   47.249   30.770   45.109
4.0   47.107   31.924   42.742
2.0   46.908   33.195   44.236
2.0    0.882   32.878   43.564
3.0   46.592   32.292   41.322
3.0   46.030   31.581   40.124
2.0   45.821   33.001   41.542
2.0   47.576   32.354   40.908
4.0   45.515   31.595   38.818
2.0   46.828   30.885   39.969
2.0   45.047   31.798   40.487
3.0   45.072   31.969   37.578
1.0   44.540   31.697   36.318
2.0   44.340   32.682   37.894
2.0   46.036   31.711   37.191
2.0   43.484   31.864   36.333
2.0   44.993   32.340   35.593
2.0   44.736   30.676   36.061
11.0    1.234   32.898   59.779
11.0   46.498   28.772   59.779
8.0   42.127   28.869   60.017
6.0   42.186   30.015   60.239
7.0   42.202   31.066   60.346
6.0   42.392   27.981   60.744
7.0   42.573   27.050   61.237
5.0   41.754   28.817   58.910
3.0   41.291   29.584   57.589
2.0   40.873   28.197   59.137
2.0   42.533   28.140   58.532
4.0   41.011   28.740   56.389
2.0   42.075   30.290   57.303
2.0   40.387   30.155   57.816
3.0   40.256   29.370   55.265
3.0   40.392   28.652   53.862
2.0   39.201   29.407   55.549
2.0   40.613   30.397   55.147
4.0   39.207   28.822   52.981
2.0   41.269   29.052   53.345
2.0   40.539   27.579   54.006
3.0   39.393   29.046   51.524
3.0   38.337   28.293   50.636
2.0   39.305   30.121   51.341
2.0   40.395   28.725   51.227
4.0   38.266   28.796   49.250
2.0   38.601   27.232   50.593
2.0   37.342   28.390   51.077
3.0   37.376   28.040   48.352
3.0   37.178   28.695   46.949
2.0   37.788   27.037   48.212
2.0   36.398   27.953   48.832
4.0   35.957   28.164   46.345
2.0   37.047   29.776   47.052
2.0   38.034   28.499   46.297
3.0   36.034   27.449   45.075
3.0   35.672   28.361   43.881
2.0   37.023   27.005   44.935
2.0   35.294   26.644   45.109
4.0   35.152   27.798   42.742
2.0   34.953   29.069   44.236
2.0   36.616   28.752   43.564
3.0   34.637   28.166   41.322
3.0   34.075   27.455   40.124
2.0   33.866   28.875   41.542
2.0   35.621   28.228   40.908
4.0   33.560   27.469   38.818
2.0   34.873   26.759   39.969
2.0   33.092   27.672   40.487
3.0   33.117   27.843   37.578
1.0   32.585   27.571   36.318
2.0   32.385   28.556   37.894
2.0   34.081   27.585   37.191
2.0   31.529   27.738   36.333
2.0   33.038   28.214   35.593
2.0   32.781   26.550   36.061
11.0   44.116   24.646   59.779
11.0   39.351   24.646   59.779
11.0   36.969   28.772   59.779
11.0   32.204   28.772   59.779
11.0   34.586   24.646   59.779
11.0   29.822   24.646   59.779
8.0   27.833   28.869   60.017
6.0   27.892   30.015   60.239
7.0   27.908   31.066   60.346
6.0   28.099   27.981   60.744
7.0   28.279   27.050   61.237
5.0   27.459   28.817   58.910
3.0   26.997   29.584   57.589
2.0   26.579   28.197   59.137
2.0   28.239   28.140   58.532
4.0   26.717   28.740   56.389
2.0   27.781   30.290   57.303
2.0   26.093   30.155   57.816
3.0   25.962   29.370   55.265
3.0   26.098   28.652   53.862
2.0   24.907   29.407   55.549
2.0   26.319   30.397   55.147
4.0   24.913   28.822   52.981
2.0   26.975   29.052   53.345
2.0   26.245   27.579   54.006
3.0   25.099   29.046   51.524
3.0   24.043   28.293   50.636
2.0   25.011   30.121   51.341
2.0   26.101   28.725   51.227
4.0   23.972   28.796   49.250
2.0   24.306   27.232   50.593
2.0   23.048   28.390   51.077
3.0   23.082   28.040   48.352
3.0   22.884   28.695   46.949
2.0   23.494   27.037   48.212
2.0   22.104   27.953   48.832
4.0   21.663   28.164   46.345
2.0   22.753   29.776   47.052
2.0   23.740   28.499   46.297
3.0   21.740   27.449   45.075
3.0   21.378   28.361   43.881
2.0   22.729   27.005   44.935
2.0   21.000   26.644   45.109
4.0   20.858   27.798   42.742
2.0   20.659   29.069   44.236
2.0   22.322   28.752   43.564
3.0   20.343   28.166   41.322
3.0   19.781   27.455   40.124
2.0   19.572   28.875   41.542
2.0   21.327   28.228   40.908
4.0   19.266   27.469   38.818
2.0   20.578   26.759   39.969
2.0   18.798   27.672   40.487
3.0   18.823   27.843   37.578
1.0   18.291   27.571   36.318
2.0   18.091   28.556   37.894
2.0   19.787   27.585   37.191
2.0   17.235   27.738   36.333
2.0   18.744   28.214   35.593
2.0   18.487   26.550   36.061
11.0   22.675   28.772   59.779
8.0   25.451   24.743   60.017
6.0   25.510   25.889   60.239
7.0   25.526   26.940   60.346
6.0   25.716   23.855   60.744
7.0   25.898   22.924   61.237
5.0   25.078   24.691   58.910
3.0   24.615   25.458   57.589
2.0   24.197   24.071   59.137
2.0   25.857   24.014   58.532
4.0   24.335   24.614   56.389
2.0   25.399   26.164   57.303
2.0   23.711   26.029   57.816
3.0   23.580   25.244   55.265
3.0   23.716   24.526   53.862
2.0   22.525   25.281   55.549
2.0   23.937   26.271   55.147
4.0   22.531   24.696   52.981
2.0   24.593   24.926   53.345
2.0   23.863   23.453   54.006
3.0   22.717   24.920   51.524
3.0   21.661   24.167   50.636
2.0   22.629   25.995   51.341
2.0   23.718   24.599   51.227
4.0   21.590   24.670   49.250
2.0   21.924   23.106   50.593
2.0   20.666   24.264   51.077
3.0   20.700   23.914   48.352
3.0   20.502   24.569   46.949
2.0   21.112   22.911   48.212
2.0   19.722   23.827   48.832
4.0   19.281   24.038   46.345
2.0   20.371   25.650   47.052
2.0   21.358   24.373   46.297
3.0   19.358   23.323   45.075
3.0   18.996   24.235   43.881
2.0   20.347   22.879   44.935
2.0   18.618   22.518   45.109
4.0   18.476   23.672   42.742
2.0   18.277   24.943   44.236
2.0   19.940   24.626   43.564
3.0   17.961   24.040   41.322
3.0   17.399   23.329   40.124
2.0   17.190   24.749   41.542
2.0   18.945   24.102   40.908
4.0   16.884   23.343   38.818
2.0   18.197   22.633   39.969
2.0   16.416   23.546   40.487
3.0   16.441   23.717   37.578
1.0   15.909   23.445   36.318
2.0   15.709   24.430   37.894
2.0   17.405   23.459   37.191
2.0   14.853   23.612   36.333
2.0   16.362   24.088   35.593
2.0   16.105   22.424   36.061
11.0   20.293   24.646   59.779
11.0   17.910   28.772   59.779
11.0   13.146   28.772   59.779
11.0   15.528   24.646   59.779
11.0   10.764   24.646   59.779
8.0    8.775   28.869   60.017
6.0    8.834   30.015   60.239
7.0    8.850   31.066   60.346
6.0    9.041   27.981   60.744
7.0    9.221   27.050   61.237
5.0    8.401   28.817   58.910
3.0    7.939   29.584   57.589
2.0    7.521   28.197   59.137
2.0    9.181   28.140   58.532
4.0    7.659   28.740   56.389
2.0    8.723   30.290   57.303
2.0    7.035   30.155   57.816
3.0    6.904   29.370   55.265
3.0    7.040   28.652   53.862
2.0    5.849   29.407   55.549
2.0    7.261   30.397   55.147
4.0    5.855   28.822   52.981
2.0    7.917   29.052   53.345
2.0    7.187   27.579   54.006
3.0    6.041   29.046   51.524
3.0    4.985   28.293   50.636
2.0    5.953   30.121   51.341
2.0    7.042   28.725   51.227
4.0    4.914   28.796   49.250
2.0    5.248   27.232   50.593
2.0    3.990   28.390   51.077
3.0    4.024   28.040   48.352
3.0    3.826   28.695   46.949
2.0    4.436   27.037   48.212
2.0    3.046   27.953   48.832
4.0    2.605   28.164   46.345
2.0    3.695   29.776   47.052
2.0    4.682   28.499   46.297
3.0    2.682   27.449   45.075
3.0    2.320   28.361   43.881
2.0    3.671   27.005   44.935
2.0    1.942   26.644   45.109
4.0    1.800   27.798   42.742
2.0    1.601   29.069   44.236
2.0    3.264   28.752   43.564
3.0    1.285   28.166   41.322
3.0    0.723   27.455   40.124
2.0    0.514   28.875   41.542
2.0    2.269   28.228   40.908
4.0    0.208   27.469   38.818
2.0    1.520   26.759   39.969
2.0   47.429   27.672   40.487
3.0   47.454   27.843   37.578
1.0   46.922   27.571   36.318
2.0   46.722   28.556   37.894
2.0    0.729   27.585   37.191
2.0   45.866   27.738   36.333
2.0   47.376   28.214   35.593
2.0   47.118   26.550   36.061
8.0    4.011   28.869   60.017
6.0    4.070   30.015   60.239
7.0    4.086   31.066   60.346
6.0    4.276   27.981   60.744
7.0    4.458   27.050   61.237
5.0    3.638   28.817   58.910
3.0    3.175   29.584   57.589
2.0    2.757   28.197   59.137
2.0    4.417   28.140   58.532
4.0    2.895   28.740   56.389
2.0    3.959   30.290   57.303
2.0    2.271   30.155   57.816
3.0    2.140   29.370   55.265
3.0    2.276   28.652   53.862
2.0    1.085   29.407   55.549
2.0    2.497   30.397   55.147
4.0    1.091   28.822   52.981
2.0    3.153   29.052   53.345
2.0    2.423   27.579   54.006
3.0    1.277   29.046   51.524
3.0    0.221   28.293   50.636
2.0    1.189   30.121   51.341
2.0    2.279   28.725   51.227
4.0    0.150   28.796   49.250
2.0    0.484   27.232   50.593
2.0   46.915   28.390   51.077
3.0   46.949   28.040   48.352
3.0   46.751   28.695   46.949
2.0   47.361   27.037   48.212
2.0   45.972   27.953   48.832
4.0   45.530   28.164   46.345
2.0   46.620   29.776   47.052
2.0   47.607   28.499   46.297
3.0   45.608   27.449   45.075
3.0   45.245   28.361   43.881
2.0   46.596   27.005   44.935
2.0   44.867   26.644   45.109
4.0   44.725   27.798   42.742
2.0   44.526   29.069   44.236
2.0   46.189   28.752   43.564
3.0   44.210   28.166   41.322
3.0   43.648   27.455   40.124
2.0   43.439   28.875   41.542
2.0   45.194   28.228   40.908
4.0   43.133   27.469   38.818
2.0   44.446   26.759   39.969
2.0   42.665   27.672   40.487
3.0   42.690   27.843   37.578
1.0   42.158   27.571   36.318
2.0   41.958   28.556   37.894
2.0   43.654   27.585   37.191
2.0   41.102   27.738   36.333
2.0   42.611   28.214   35.593
2.0   42.354   26.550   36.061
11.0    5.999   24.646   59.779
11.0    1.234   24.646   59.779
11.0   46.498   20.519   59.779
11.0   41.733   20.519   59.779
8.0   44.510   16.490   60.017
6.0   44.569   17.636   60.239
7.0   44.585   18.687   60.346
6.0   44.775   15.602   60.744
7.0   44.956   14.671   61.237
5.0   44.137   16.438   58.910
3.0   43.674   17.205   57.589
2.0   43.256   15.818   59.137
2.0   44.916   15.761   58.532
4.0   43.394   16.361   56.389
2.0   44.458   17.911   57.303
2.0   42.770   17.776   57.816
3.0   42.639   16.991   55.265
3.0   42.775   16.273   53.862
2.0   41.584   17.028   55.549
2.0   42.996   18.018   55.147
4.0   41.590   16.443   52.981
2.0   43.652   16.673   53.345
2.0   42.922   15.200   54.006
3.0   41.776   16.667   51.524
3.0   40.720   15.914   50.636
2.0   41.688   17.742   51.341
2.0   42.778   16.346   51.227
4.0   40.649   16.417   49.250
2.0   40.984   14.853   50.593
2.0   39.725   16.011   51.077
3.0   39.759   15.661   48.352
3.0   39.561   16.316   46.949
2.0   40.171   14.658   48.212
2.0   38.781   15.574   48.832
4.0   38.340   15.785   46.345
2.0   39.430   17.397   47.052
2.0   40.417   16.120   46.297
3.0   38.417   15.070   45.075
3.0   38.055   15.982   43.881
2.0   39.406   14.626   44.935
2.0   37.677   14.265   45.109
4.0   37.535   15.419   42.742
2.0   37.336   16.690   44.236
2.0   38.999   16.373   43.564
3.0   37.020   15.787   41.322
3.0   36.458   15.076   40.124
2.0   36.249   16.496   41.542
2.0   38.004   15.849   40.908
4.0   35.943   15.090   38.818
2.0   37.255   14.380   39.969
2.0   35.475   15.293   40.487
3.0   35.500   15.464   37.578
1.0   34.968   15.192   36.318
2.0   34.768   16.177   37.894
2.0   36.464   15.206   37.191
2.0   33.912   15.359   36.333
2.0   35.421   15.835   35.593
2.0   35.164   14.171   36.061
11.0   39.351   16.393   59.779
11.0   36.969   20.519   59.779
11.0   32.204   20.519   59.779
11.0   34.586   16.393   59.779
11.0   29.822   16.393   59.779
11.0   27.439   20.519   59.779
11.0   22.675   20.519   59.779
11.0   25.057   16.393   59.779
11.0   20.293   16.393   59.779
11.0   17.910   20.519   59.779
8.0   13.540   20.616   60.017
6.0   13.599   21.762   60.239
7.0   13.615   22.813   60.346
6.0   13.806   19.728   60.744
7.0   13.986   18.797   61.237
5.0   13.166   20.564   58.910
3.0   12.704   21.331   57.589
2.0   12.286   19.944   59.137
2.0   13.946   19.887   58.532
4.0   12.424   20.487   56.389
2.0   13.488   22.037   57.303
2.0   11.800   21.902   57.816
3.0   11.669   21.117   55.265
3.0   11.805   20.399   53.862
2.0   10.614   21.154   55.549
2.0   12.026   22.144   55.147
4.0   10.620   20.569   52.981
2.0   12.682   20.799   53.345
2.0   11.952   19.326   54.006
3.0   10.806   20.793   51.524
3.0    9.750   20.040   50.636
2.0   10.718   21.868   51.341
2.0   11.807   20.472   51.227
4.0    9.679   20.543   49.250
2.0   10.014   18.979   50.593
2.0    8.755   20.137   51.077
3.0    8.789   19.787   48.352
3.0    8.591   20.442   46.949
2.0    9.201   18.784   48.212
2.0    7.811   19.700   48.832
4.0    7.370   19.911   46.345
2.0    8.460   21.523   47.052
2.0    9.447   20.246   46.297
3.0    7.447   19.196   45.075
3.0    7.085   20.108   43.881
2.0    8.436   18.752   44.935
2.0    6.707   18.391   45.109
4.0    6.565   19.545   42.742
2.0    6.366   20.816   44.236
2.0    8.029   20.499   43.564
3.0    6.050   19.913   41.322
3.0    5.488   19.202   40.124
2.0    5.279   20.622   41.542
2.0    7.034   19.975   40.908
4.0    4.973   19.216   38.818
2.0    6.285   18.506   39.969
2.0    4.505   19.419   40.487
3.0    4.530   19.590   37.578
1.0    3.998   19.318   36.318
2.0    3.798   20.303   37.894
2.0    5.494   19.332   37.191
2.0    2.942   19.485   36.333
2.0    4.451   19.961   35.593
2.0    4.194   18.297   36.061
11.0   15.528   16.393   59.779
11.0   10.764   16.393   59.779
11.0    8.381   20.519   59.779
8.0    4.011   20.616   60.017
6.0    4.070   21.762   60.239
7.0    4.086   22.813   60.346
6.0    4.276   19.728   60.744
7.0    4.458   18.797   61.237
5.0    3.638   20.564   58.910
3.0    3.175   21.331   57.589
2.0    2.757   19.944   59.137
2.0    4.417   19.887   58.532
4.0    2.895   20.487   56.389
2.0    3.959   22.037   57.303
2.0    2.271   21.902   57.816
3.0    2.140   21.117   55.265
3.0    2.276   20.399   53.862
2.0    1.085   21.154   55.549
2.0    2.497   22.144   55.147
4.0    1.091   20.569   52.981
2.0    3.153   20.799   53.345
2.0    2.423   19.326   54.006
3.0    1.277   20.793   51.524
3.0    0.221   20.040   50.636
2.0    1.189   21.868   51.341
2.0    2.279   20.472   51.227
4.0    0.150   20.543   49.250
2.0    0.484   18.979   50.593
2.0   46.915   20.137   51.077
3.0   46.949   19.787   48.352
3.0   46.751   20.442   46.949
2.0   47.361   18.784   48.212
2.0   45.972   19.700   48.832
4.0   45.530   19.911   46.345
2.0   46.620   21.523   47.052
2.0   47.607   20.246   46.297
3.0   45.608   19.196   45.075
3.0   45.245   20.108   43.881
2.0   46.596   18.752   44.935
2.0   44.867   18.391   45.109
4.0   44.725   19.545   42.742
2.0   44.526   20.816   44.236
2.0   46.189   20.499   43.564
3.0   44.210   19.913   41.322
3.0   43.648   19.202   40.124
2.0   43.439   20.622   41.542
2.0   45.194   19.975   40.908
4.0   43.133   19.216   38.818
2.0   44.446   18.506   39.969
2.0   42.665   19.419   40.487
3.0   42.690   19.590   37.578
1.0   42.158   19.318   36.318
2.0   41.958   20.303   37.894
2.0   43.654   19.332   37.191
2.0   41.102   19.485   36.333
2.0   42.611   19.961   35.593
2.0   42.354   18.297   36.061
11.0    5.999   16.393   59.779
11.0    1.234   16.393   59.779
11.0   46.498   12.267   59.779
11.0   41.733   12.267   59.779
11.0   44.116    8.141   59.779
11.0   39.351    8.141   59.779
11.0   36.969   12.267   59.779
11.0   32.204   12.267   59.779
11.0   34.586    8.141   59.779
8.0   30.216    8.238   60.017
6.0   30.275    9.384   60.239
7.0   30.291   10.435   60.346
6.0   30.482    7.350   60.744
7.0   30.662    6.419   61.237
5.0   29.843    8.186   58.910
3.0   29.380    8.953   57.589
2.0   28.962    7.566   59.137
2.0   30.622    7.509   58.532
4.0   29.100    8.109   56.389
2.0   30.164    9.659   57.303
2.0   28.476    9.524   57.816
3.0   28.345    8.739   55.265
3.0   28.481    8.021   53.862
2.0   27.290    8.776   55.549
2.0   28.702    9.766   55.147
4.0   27.296    8.191   52.981
2.0   29.358    8.421   53.345
2.0   28.628    6.948   54.006
3.0   27.482    8.415   51.524
3.0   26.426    7.662   50.636
2.0   27.394    9.490   51.341
2.0   28.483    8.094   51.227
4.0   26.355    8.165   49.250
2.0   26.689    6.601   50.593
2.0   25.431    7.759   51.077
3.0   25.465    7.409   48.352
3.0   25.267    8.064   46.949
2.0   25.877    6.406   48.212
2.0   24.487    7.322   48.832
4.0   24.046    7.533   46.345
2.0   25.136    9.145   47.052
2.0   26.123    7.868   46.297
3.0   24.123    6.818   45.075
3.0   23.761    7.730   43.881
2.0   25.112    6.374   44.935
2.0   23.383    6.013   45.109
4.0   23.241    7.167   42.742
2.0   23.042    8.438   44.236
2.0   24.705    8.121   43.564
3.0   22.726    7.535   41.322
3.0   22.164    6.824   40.124
2.0   21.955    8.244   41.542
2.0   23.710    7.597   40.908
4.0   21.649    6.838   38.818
2.0   22.962    6.128   39.969
2.0   21.181    7.041   40.487
3.0   21.206    7.212   37.578
1.0   20.674    6.940   36.318
2.0   20.474    7.925   37.894
2.0   22.170    6.954   37.191
2.0   19.618    7.107   36.333
2.0   21.127    7.583   35.593
2.0   20.870    5.919   36.061
11.0   27.439   12.267   59.779
11.0   22.675   12.267   59.779
11.0   25.057    8.141   59.779
11.0   20.293    8.141   59.779
11.0   17.910   12.267   59.779
11.0   13.146   12.267   59.779
11.0   15.528    8.141   59.779
8.0   11.158    8.238   60.017
6.0   11.217    9.384   60.239
7.0   11.233   10.435   60.346
6.0   11.423    7.350   60.744
7.0   11.605    6.419   61.237
5.0   10.785    8.186   58.910
3.0   10.322    8.953   57.589
2.0    9.904    7.566   59.137
2.0   11.564    7.509   58.532
4.0   10.042    8.109   56.389
2.0   11.106    9.659   57.303
2.0    9.418    9.524   57.816
3.0    9.287    8.739   55.265
3.0    9.423    8.021   53.862
2.0    8.232    8.776   55.549
2.0    9.644    9.766   55.147
4.0    8.238    8.191   52.981
2.0   10.300    8.421   53.345
2.0    9.570    6.948   54.006
3.0    8.424    8.415   51.524
3.0    7.368    7.662   50.636
2.0    8.336    9.490   51.341
2.0    9.425    8.094   51.227
4.0    7.297    8.165   49.250
2.0    7.632    6.601   50.593
2.0    6.373    7.759   51.077
3.0    6.407    7.409   48.352
3.0    6.209    8.064   46.949
2.0    6.819    6.406   48.212
2.0    5.429    7.322   48.832
4.0    4.988    7.533   46.345
2.0    6.078    9.145   47.052
2.0    7.065    7.868   46.297
3.0    5.065    6.818   45.075
3.0    4.703    7.730   43.881
2.0    6.054    6.374   44.935
2.0    4.325    6.013   45.109
